0.2707309514074743 -0.16681951909175316 2.6
0.2800958585316322 -0.17259000560121632 2.8000000000000003
0.2571092683177901 -0.15842608416889764 3.0000000000000004
0.24008216445568473 -0.14793429051532825 3.2000000000000006
0.23752809887636897 -0.1463605214672929 3.400000000000001
0.24519029561431632 -0.15108182861139907 3.600000000000001
0.269879596214369 -0.1662949294090747 3.800000000000001
0.2534560695749122 -0.16049928596612908 0
0.2948538942721478 -0.18671416934059681 0.2
0.256835483835911 -0.16263927644567747 0.4
0.2703531408799063 -0.17119923836387102 0.6000000000000001
0.2652840194884081 -0.16798925264454845 0.8
0.25176636244441275 -0.15942929072635487 1.0
0.26021489809690984 -0.16477926692522585 1.2
0.26021489809690984 -0.16477926692522585 1.4
0.22726560905217125 -0.14391435974962907 1.5999999999999999
0.21459280557342564 -0.13588939545132261 1.7999999999999998
0.21797221983442447 -0.13802938593087102 1.9999999999999998
0.23317958400891922 -0.14765934308883877 2.1999999999999997
0.23993841253091683 -0.1519393240479355 2.4
0.2619046052274092 -0.16584926216500004 2.6
0.2695082873146566 -0.17066424074398392 2.8000000000000003
0.2466972410529145 -0.1562193050070323 3.0000000000000004
0.23317958400891922 -0.14765934308883877 3.2000000000000006
0.23064502331317008 -0.14605435022917748 3.400000000000001
0.23655899826991805 -0.14979933356838715 3.600000000000001
0.2576803374011607 -0.16317427406556456 3.800000000000001
0.24476161402201266 -0.15923489661923756 0
0.28834929871086423 -0.18759179601718398 0.2
0.2472762881386772 -0.1608708715845037 0.4
0.2598496587219998 -0.1690507464108344 0.6000000000000001
0.2556585351942256 -0.16632412146872416 0.8
0.24224693990534815 -0.1575989216539714 1.0
0.25062918696089653 -0.16305217153819188 1.2
0.24895273754978686 -0.1619615215613478 1.4
0.21793842344425787 -0.14178449698973208 1.5999999999999999
0.20787972697759982 -0.1352405971286675 1.7999999999999998
0.21039440109426433 -0.13687657209393367 1.9999999999999998
0.22380599638314175 -0.14560177190868642 2.1999999999999997
0.23386469284979983 -0.15214567176975097 2.4
0.2523056363720062 -0.16414282151503598 2.6
0.25901143401644494 -0.16850542142241234 2.8000000000000003
0.23470291755535466 -0.15269099675817302 3.0000000000000004
0.2288353446164708 -0.1488737218392187 3.2000000000000006
0.22799711991091595 -0.14832839685079666 3.400000000000001
0.2313500187331353 -0.15050969680448484 3.600000000000001
0.25146741166645137 -0.16359749652661393 3.800000000000001
0.23780030911852798 -0.1588930866436061 0
0.27189056322293237 -0.18167146619740981 0.2
0.2336429610570153 -0.15611523547850814 0.4
0.24860941407846107 -0.16611549967286093 0.6000000000000001
0.24777794446615853 -0.16555992943984135 0.8
0.23863177873083052 -0.1594486568766257 1.0
0.24445206601694836 -0.16333764850776294 1.2
0.24445206601694836 -0.16333764850776294 1.4
0.21285622074945165 -0.1422259796530181 1.5999999999999999
0.20371005501412362 -0.13611470708980244 1.7999999999999998
0.20786740307563636 -0.13889255825490046 1.9999999999999998
0.2178450384232669 -0.14555940105113568 2.1999999999999997
0.2244967953216873 -0.1500039629152925 2.4
0.24445206601694836 -0.16333764850776294 2.6
0.2519352925276713 -0.16833778060493934 2.8000000000000003
0.23281149144471275 -0.15555966524548853 3.0000000000000004
0.22366532570938474 -0.14944839268227292 3.2000000000000006
0.22200238648477966 -0.1483372522162337 3.400000000000001
0.22615973454629237 -0.15111510338133172 3.600000000000001
0.24278912679234327 -0.16222650804172373 3.800000000000001
0.23170959408259212 -0.1589706388301953 0
0.2638685768912081 -0.1810341794507562 0.2
0.227586647568667 -0.15614197977627722 0.4
0.24655220153272256 -0.1691538114243003 0.6000000000000001
0.24078007641322738 -0.16519368874881502 0.8
0.23006041547702208 -0.15783917520862809 1.0
0.2391308978076573 -0.1640622251272478 1.2
0.23995548711044234 -0.1646279569380314 1.4
0.20614732569625632 -0.14143295269590328 1.5999999999999999
0.20119978987954618 -0.1380385618312016 1.7999999999999998
0.20449814709068628 -0.14030148907433607 1.9999999999999998
0.21356862942132157 -0.1465245389929558 2.1999999999999997
0.21686698663246165 -0.14878746623609027 2.4
0.2383063085048723 -0.16349649331646418 2.6
0.2482013801382926 -0.17028527504586755 2.8000000000000003
0.227586647568667 -0.15614197977627722 3.0000000000000004
0.21769157593524668 -0.14935319804687386 3.2000000000000006
0.21769157593524668 -0.14935319804687386 3.400000000000001
0.2242882903575269 -0.15387905253314277 3.600000000000001
0.2383063085048723 -0.16349649331646418 3.800000000000001
0.22401823880353403 -0.1577714444484895 0
0.24691061357177835 -0.17389407380818916 0.2
0.22238306917723086 -0.15661982806565383 0.4
0.2321940869350498 -0.16352952636266793 0.6000000000000001
0.23464684137450456 -0.16525695093692147 0.8
0.22156548436407927 -0.15604401987423597 1.0
0.2321940869350498 -0.16352952636266793 1.2
0.23382925656135298 -0.16468114274550363 1.4
0.20194344884844123 -0.14222462328020768 1.5999999999999999
0.19949069440898648 -0.14049719870595415 1.7999999999999998
0.20112586403528965 -0.14164881508878985 1.9999999999999998
0.21093688179310865 -0.14855851338580398 2.1999999999999997
0.21175446660626024 -0.14913432157722184 2.4
0.2297413324955951 -0.16180210178841442 2.6
0.23955235025341406 -0.16871180008542855 2.8000000000000003
0.22401823880353403 -0.1577714444484895 3.0000000000000004
0.21584239067201816 -0.15201336253431105 3.2000000000000006
0.214207221045715 -0.15086174615147538 3.400000000000001
0.21747756029832133 -0.15316497891714675 3.600000000000001
0.2321940869350498 -0.16352952636266793 3.800000000000001
0.21720252913169544 -0.1569938257983256 0
0.2374639590880103 -0.17163877223473653 0.2
0.21315024314043246 -0.1540648365110434 0.4
0.2228757295194636 -0.16109441080052067 0.6000000000000001
0.22854892990723175 -0.1651949958027157 0.8
0.21558161473519025 -0.15582223008341273 1.0
0.2253071011142214 -0.16285180437288999 1.2
0.2253071011142214 -0.16285180437288999 1.4
0.19613064197712796 -0.14176308150445818 1.5999999999999999
0.19288881318411757 -0.13941989007463243 1.7999999999999998
0.19613064197712796 -0.14176308150445818 1.9999999999999998
0.2066665855544117 -0.14937845365139188 2.1999999999999997
0.2042352139596539 -0.14762106007902256 2.4
0.2228757295194636 -0.16109441080052067 2.6
0.2358430446915051 -0.17046717651982365 2.8000000000000003
0.21639207193344284 -0.15640802794086917 3.0000000000000004
0.21233978594217987 -0.15347903865358695 3.2000000000000006
0.2066665855544117 -0.14937845365139188 3.400000000000001
0.20990841434742208 -0.15172164508121763 3.600000000000001
0.2253071011142214 -0.16285180437288999 3.800000000000001
0.21044037324792908 -0.1560732177770174 0
0.22971735400346452 -0.17037000108483577 0.2
0.21284999584237102 -0.1578603156904947 0.4
0.21927565609421618 -0.16262591012643415 0.6000000000000001
0.22409490128310006 -0.16620010595338877 0.8
0.21124358077940972 -0.15666891708150985 1.0
0.22650452387754194 -0.16798720386686603 1.2
0.22329169375161942 -0.16560440664889634 1.4
0.19196660002387422 -0.14237213377369143 1.5999999999999999
0.19276980755535486 -0.14296783307818386 1.7999999999999998
0.19116339249239356 -0.141776434469199 1.9999999999999998
0.20240829793312262 -0.15011622473209307 2.1999999999999997
0.20240829793312262 -0.15011622473209307 2.4
0.21927565609421618 -0.16262591012643415 2.6
0.22570131634606133 -0.16739150456237364 2.8000000000000003
0.21124358077940972 -0.15666891708150985 3.0000000000000004
0.20803075065348714 -0.1542861198635401 3.2000000000000006
0.20481792052756456 -0.15190332264557035 3.400000000000001
0.20883395818496778 -0.15488181916803254 3.600000000000001
0.22088207115717748 -0.16381730873541903 3.800000000000001
0.20612175829370089 -0.15682735972372025 0
0.21885514876744303 -0.1665155363861895 0.2
0.20850926900752753 -0.15864389284793323 0.4
0.21248845353057194 -0.16167144805495487 0.6000000000000001
0.21805931186283414 -0.16591002534478516 0.8
0.20453008448448312 -0.15561633764091162 1.0
0.22283433329048746 -0.1695430915932111 1.2
0.22124265948126967 -0.16833206951040244 1.4
0.1894091832969143 -0.14411162785422943 1.5999999999999999
0.1902050202015232 -0.14471713889563376 1.7999999999999998
0.1902050202015232 -0.14471713889563376 1.9999999999999998
0.19816338924761204 -0.150772249309677 2.1999999999999997
0.20373424757987424 -0.1550108265995073 2.4
0.21487596424439862 -0.16348798117916785 2.6
0.22601768090892294 -0.17196513575882838 2.8000000000000003
0.2093051059121364 -0.15924940388933756 3.0000000000000004
0.20612175829370089 -0.15682735972372025 3.2000000000000006
0.20293841067526533 -0.15440531555810297 3.400000000000001
0.20612175829370089 -0.15682735972372025 3.600000000000001
0.21408012733978973 -0.16288247013776352 3.800000000000001
0.20181668547241116 -0.15749928718864054 0
0.23413888900510202 -0.18272378240244622 0.2
0.20418172475529098 -0.1593449819603824 0.4
0.21443022831443687 -0.16734299263793057 0.6000000000000001
0.21364188188681027 -0.16672776104734993 0.8
0.20418172475529098 -0.1593449819603824 1.0
0.22389038544595613 -0.17472577172489806 1.2
0.22152534616307634 -0.17288007695315621 1.4
0.18604975691987904 -0.14519465537702797 1.5999999999999999
0.19077983548563868 -0.14888604492051175 1.7999999999999998
0.18841479620275886 -0.14704035014876984 1.9999999999999998
0.19945164618953135 -0.15565359241689863 2.1999999999999997
0.20023999261715797 -0.15626882400747927 2.4
0.21285353545918367 -0.16611252945676933 2.6
0.22073699973544975 -0.17226484536257558 2.8000000000000003
0.20733511046579742 -0.16180590832270492 3.0000000000000004
0.20339337832766438 -0.15872975036980178 3.2000000000000006
0.20102833904478457 -0.1568840555980599 3.400000000000001
0.2049700711829176 -0.15996021355096304 3.600000000000001
0.2152185747420635 -0.1679582242285112 3.800000000000001
0.19908799328588417 -0.15933916947630847 0
0.2334404313430563 -0.18683298695457345 0.2
0.2076761028001772 -0.1662126238458747 0.4
0.21314126340018189 -0.17058664026287143 0.6000000000000001
0.21079905171446559 -0.16871206179844425 0.8
0.20064946774302836 -0.16058888845259323 1.0
0.22094863568590278 -0.17683523514429525 1.2
0.21782568677161446 -0.17433579719172573 1.4
0.18893840931444691 -0.15121599613045744 1.5999999999999999
0.18581546040015853 -0.1487165581778879 1.7999999999999998
0.18737693485730272 -0.14996627715417266 1.9999999999999998
0.19830725605731206 -0.15871430998816607 2.1999999999999997
0.19830725605731206 -0.15871430998816607 2.4
0.21314126340018189 -0.17058664026287143 2.6
0.21782568677161446 -0.17433579719172573 2.8000000000000003
0.20689536557160512 -0.16558776435773234 3.0000000000000004
0.19752651882873998 -0.15808945050002368 3.2000000000000006
0.19986873051445625 -0.15996402896445086 3.400000000000001
0.20455315388588882 -0.16371318589330516 3.600000000000001
0.2092375772573214 -0.1674623428221595 3.800000000000001
0.2033017492343998 -0.1668454337350388 0
0.23344915691554652 -0.19158677181742095 0.2
0.2071668015012135 -0.17001740015585703 0.4
0.21257787467475267 -0.17445815314500254 0.6000000000000001
0.21180486422138992 -0.1738237598608389 0.8
0.19943669696758612 -0.16367346731422056 1.0
0.2156699164882036 -0.17699572628165713 1.2
0.2172159373949291 -0.17826451284998443 1.4
0.1847494983536941 -0.1516199949151113 1.5999999999999999
0.18552250880705684 -0.15225438819927495 1.7999999999999998
0.1847494983536941 -0.1516199949151113 1.9999999999999998
0.19634465515413518 -0.161135894177566 2.1999999999999997
0.1971176656074979 -0.16177028746172964 2.4
0.2110318537680272 -0.17318936657667527 2.6
0.22030797920838 -0.180802085986639 2.8000000000000003
0.2033017492343998 -0.1668454337350388 3.0000000000000004
0.20252873878103708 -0.16621104045087515 3.2000000000000006
0.19789067606086064 -0.1624046807458933 3.400000000000001
0.20252873878103708 -0.16621104045087515 3.600000000000001
0.20871282240793898 -0.17128618672418433 3.800000000000001
0.19741315453059446 -0.16610853806556614 0
0.2303153469523602 -0.19379329440982712 0.2
0.2042996599211966 -0.17190302195157425 0.4
0.20889066351493138 -0.175766011208913 0.6000000000000001
0.21195133257742121 -0.17834133738047217 0.8
0.20047382359308433 -0.16868386423712528 1.0
0.21960300523364576 -0.18477965280937006 1.2
0.2188378379680233 -0.18413582126648026 1.4
0.18210980921814526 -0.1532319072077703 1.5999999999999999
0.1874659800775025 -0.15773872800799882 1.7999999999999998
0.18593564554625758 -0.15645106492221925 1.9999999999999998
0.19435248546810463 -0.16353321189400696 2.1999999999999997
0.196647987264972 -0.16546470652267634 2.4
0.21577716890553347 -0.1815604950949211 2.6
0.22189850703051314 -0.18671114743803943 2.8000000000000003
0.2042996599211966 -0.17190302195157425 3.0000000000000004
0.20047382359308433 -0.16868386423712528 3.2000000000000006
0.19741315453059446 -0.16610853806556614 3.400000000000001
0.20047382359308433 -0.16868386423712528 3.600000000000001
0.2081254962493089 -0.1751221796660232 3.800000000000001
0.19990313547771194 -0.17243763053979708 0
0.23170590703098426 -0.19987088994385568 0.2
0.2074752239427768 -0.17896935896933486 0.4
0.2067180150962703 -0.17831618612638106 0.6000000000000001
0.21277568586832218 -0.18354156887001127 0.8
0.20444638855675085 -0.17635666759751972 1.0
0.22110498317989347 -0.1907264701425028 1.2
0.22110498317989347 -0.1907264701425028 1.4
0.18248733200806277 -0.1574146551518602 1.5999999999999999
0.1870305850871017 -0.16133369220958285 1.7999999999999998
0.1870305850871017 -0.16133369220958285 1.9999999999999998
0.19460267355216654 -0.16786542063912063 2.1999999999999997
0.1961170912451795 -0.16917176632502817 2.4
0.21277568586832218 -0.18354156887001127 2.6
0.22337660971941292 -0.19268598867136413 2.8000000000000003
0.20368917971024436 -0.17570349475456595 3.0000000000000004
0.1961170912451795 -0.16917176632502817 3.2000000000000006
0.2014175531707249 -0.17374397622570462 3.400000000000001
0.2021747620172314 -0.1743971490686584 3.600000000000001
0.20898964163578976 -0.1802757046552424 3.800000000000001
0.20526337209942794 -0.181501923059707 0
0.24946241937631206 -0.2205844539375271 0.2
0.20301596291585755 -0.17951467572693647 0.4
0.2097581904665687 -0.18547641772524803 0.6000000000000001
0.2127547360446625 -0.18812608083560867 0.8
0.20301596291585755 -0.17951467572693647 1.0
0.21575128162275634 -0.19077574394596936 1.2
0.21949696359537366 -0.19408782283392023 1.4
0.18878237141991183 -0.1669287759527232 1.5999999999999999
0.18428755305277106 -0.16295428128718217 1.7999999999999998
0.18054187108015377 -0.15964220239923133 1.9999999999999998
0.3820595612069644 -0.3378320465709874 2.1999999999999997
0.2007685537322872 -0.17752742839416596 2.4
0.21949696359537366 -0.19408782283392023 2.6
0.22698832754060824 -0.20071198060982195 2.8000000000000003
0.20451423570490448 -0.1808395072821168 3.0000000000000004
0.20151769012681064 -0.17818984417175612 3.2000000000000006
0.1947754625760995 -0.17222810217344459 3.400000000000001
0.2007685537322872 -0.17752742839416596 3.600000000000001
0.2127547360446625 -0.18812608083560867 3.800000000000001
0.19931585272048402 -0.18064935885384795 0
0.24229101799107164 -0.219599778234975 0.2
0.20746631509938857 -0.18803650735716515 0.4
0.21413487522758318 -0.19408053795078828 0.6000000000000001
0.21487582635293812 -0.1947520969056353 0.8
0.2067253639740336 -0.18736494840231813 1.0
0.21413487522758318 -0.19408053795078828 1.2
0.21783963085435795 -0.19743833272502337 1.4
0.1844968302133848 -0.16721817975690756 1.5999999999999999
0.1867196835894497 -0.16923285662144863 1.7999999999999998
0.1793101723359001 -0.16251726707297842 1.9999999999999998
0.19487014596835425 -0.17662000512476583 2.1999999999999997
0.19857490159512906 -0.17997779989900092 2.4
0.21487582635293812 -0.1947520969056353 2.6
0.22599009323326252 -0.20482548122834057 2.8000000000000003
0.20450251059796873 -0.18535027153777708 3.0000000000000004
0.2015387060965489 -0.182664035718389 3.2000000000000006
0.19635204821906418 -0.17796312303445988 3.400000000000001
0.20005680384583896 -0.18132091780869497 3.600000000000001
0.21561677747829308 -0.19542365586048233 3.800000000000001
0.2000146161665688 -0.1858040723981586 0
0.23151874984848256 -0.21506991530336306 0.2
0.1992819618948964 -0.18512347140036314 0.4
0.20367788752493088 -0.18920707738713585 0.6000000000000001
0.21100443024165497 -0.19601308736509035 0.8
0.20074727043824123 -0.18648467339595406 1.0
0.21979628150172395 -0.2041802993386358 1.2
0.2227268985884136 -0.2069027033298176 1.4
0.1838962221897757 -0.17083085044665863 1.5999999999999999
0.18536153073312053 -0.17219205244224953 1.7999999999999998
0.18023295083141364 -0.16742784545768136 1.9999999999999998
0.19049011063482743 -0.1769562594268177 2.1999999999999997
0.19781665335155157 -0.18376226940477225 2.4
0.2183309729583791 -0.2028190973430449 2.6
0.21466770160001705 -0.19941609235406763 2.8000000000000003
0.20221257898158604 -0.18784587539154496 3.0000000000000004
0.1941533819931895 -0.18035926441579497 3.2000000000000006
0.20221257898158604 -0.18784587539154496 3.400000000000001
0.19781665335155157 -0.18376226940477225 3.600000000000001
0.21173708451332737 -0.1966936883628858 3.800000000000001
0.19844370072870196 -0.18893410925795634 0
0.23175906654446946 -0.2206529743158614 0.2
0.2027891832264108 -0.19307135252637872 0.4
0.21148014822182834 -0.2013458390632235 0.6000000000000001
0.2085831598900225 -0.19858767688427523 0.8
0.19916794781165345 -0.1896236498026934 1.0
0.21799837196839156 -0.20755170396585712 1.2
0.22017111321724597 -0.20962032560006832 1.4
0.3693660123052482 -0.3516656778159041 1.5999999999999999
0.18251026490376968 -0.17376421727374083 1.7999999999999998
0.17888902948901234 -0.1703165145500555 1.9999999999999998
0.18975273573328436 -0.18065962272111152 2.1999999999999997
0.19699520656279904 -0.18755502816848219 2.4
0.21799837196839156 -0.20755170396585712 2.6
0.21582563071953717 -0.20548308233164592 2.8000000000000003
0.1998921948946049 -0.19031319034743047 3.0000000000000004
0.19192547698213877 -0.18272824435532273 3.2000000000000006
0.19482246531394465 -0.18548640653427098 3.400000000000001
0.19482246531394465 -0.18548640653427098 3.600000000000001
0.21148014822182834 -0.2013458390632235 3.800000000000001
0.20255182355532078 -0.19764047858273917 0
0.23118105656667357 -0.22557552855909807 0.2
0.20112036190475316 -0.19624372608392127 0.4
0.20255182355532078 -0.19764047858273917 0.6000000000000001
0.20970913180815898 -0.2046242410768289 0.8
0.19825743860361789 -0.19345022108628537 1.0
0.20827767015759133 -0.20322748857801096 1.2
0.2147192475851457 -0.2095128748226917 1.4
0.3643069900694639 -0.35547351094916696 1.5999999999999999
0.18251136044737387 -0.17808594359928795 1.7999999999999998
0.17463832136925184 -0.17040380485578926 1.9999999999999998
0.18680574539907677 -0.1822762010957418 2.1999999999999997
0.19968890025418554 -0.1948469735851033 2.4
0.2182979017115648 -0.21300475606973657 2.6
0.22402374831383537 -0.21859176606500835 2.8000000000000003
0.20112036190475316 -0.19624372608392127 3.0000000000000004
0.19038439952549588 -0.18576808234278666 3.2000000000000006
0.19253159200134734 -0.1878632110910136 3.400000000000001
0.19682597695305026 -0.1920534685874674 3.600000000000001
0.21328778593457806 -0.20811612232387375 3.800000000000001
0.20293964620053917 -0.2029396462005391 0
0.2312239174480011 -0.231223917448001 0.2
0.200111219075793 -0.20011121907579288 0.4
0.21001071401240465 -0.21001071401240456 0.6000000000000001
0.21708178182427013 -0.21708178182427004 0.8
0.19798989873223338 -0.19798989873223327 1.0
0.21778888860545667 -0.2177888886054566 1.2
0.2192031021678298 -0.21920310216782968 1.4
0.18101933598375622 -0.18101933598375614 1.5999999999999999
0.18314065632731585 -0.18314065632731577 1.7999999999999998
0.17324116139070417 -0.17324116139070408 1.9999999999999998
0.18738329701443515 -0.18738329701443507 2.1999999999999997
0.20223253941935262 -0.2022325394193525 2.4
0.21283914113715086 -0.21283914113715074 2.6
0.22556706319850872 -0.2255670631985086 2.8000000000000003
0.20364675298172571 -0.20364675298172563 3.0000000000000004
0.19657568516986026 -0.19657568516986018 3.2000000000000006
0.18879751057680824 -0.18879751057680816 3.400000000000001
0.19445436482630063 -0.19445436482630055 3.600000000000001
0.21425335469952395 -0.21425335469952383 3.800000000000001
0.1969421023333303 -0.2018360927300369 0
0.23395604355200586 -0.23976982647007933 0.2
0.2011323598297841 -0.2061304776817398 0.4
0.21370313231914564 -0.21901363253684855 0.6000000000000001
0.20532261732623797 -0.21042486263344273 0.8
0.20392586482742 -0.20899340098287508 1.0
0.21370313231914564 -0.21901363253684855 1.2
0.21230637982032768 -0.2175821708862809 1.4
0.18576808234278674 -0.19038439952549582 1.5999999999999999
0.17808594359928803 -0.1825113604473738 1.7999999999999998
0.1738956861028342 -0.1782169754956709 1.9999999999999998
0.18506970609337778 -0.18966866870021198 2.1999999999999997
0.20043398358037515 -0.20541474685645597 2.4
0.21160800357091872 -0.2168664400609971 2.6
0.21579826106737257 -0.2211608250127 2.8000000000000003
0.1948469735851034 -0.19968890025418548 3.0000000000000004
0.18786321109101367 -0.19253159200134728 3.2000000000000006
0.18786321109101367 -0.19253159200134728 3.400000000000001
0.19135509233805853 -0.19611024612776637 3.600000000000001
0.21230637982032768 -0.2175821708862809 3.800000000000001
0.19582951470532706 -0.20568617155821653 0
0.25513000155271487 -0.26797142069204266 0.2
0.19858767688427534 -0.20858315989002238 0.4
0.21099940668954253 -0.2216196073831488 0.6000000000000001
0.20617262287638308 -0.21654987780248852 0.8
0.19789813633953826 -0.20785891280707092 1.0
0.21375756886849082 -0.22451659571495466 1.2
0.21306802832375374 -0.2237923486320032 1.4
0.18479686598953401 -0.19409821823099307 1.5999999999999999
0.1834177849000599 -0.19264972406509015 1.7999999999999998
0.17514329836321507 -0.18395875906967254 1.9999999999999998
0.1827282443553228 -0.1919254769821387 2.1999999999999997
0.19858767688427534 -0.20858315989002238 2.4
0.2185843526816503 -0.22958632529561493 2.6
0.2116889472342796 -0.22234385446610028 2.8000000000000003
0.19031319034743055 -0.19989219489460483 3.0000000000000004
0.18617594707900814 -0.19554671239689603 3.2000000000000006
0.18686548762374522 -0.1962709594798475 3.400000000000001
0.19100273089216763 -0.2006164419775563 3.600000000000001
0.21030986614480549 -0.22089536030019732 3.800000000000001
0.20690270332981772 -0.22272689858841352 0
0.24841936419534036 -0.2674188091604307 0.2
0.19941609235406774 -0.21466770160001697 0.4
0.19873549135627228 -0.21393504732834456 0.6000000000000001
0.21847292029234042 -0.23518202120684456 0.8
0.19056827938272686 -0.20514319606827564 1.0
0.2157505163011586 -0.2322514041201549 1.2
0.21370871330777225 -0.23005344130513766 1.4
0.1844428704025678 -0.19854930762322393 1.5999999999999999
0.18103986541359052 -0.19488603626486184 1.7999999999999998
0.17423385543563596 -0.18755949354813772 1.9999999999999998
0.1824010674091814 -0.19635134480820668 2.1999999999999997
0.19873549135627228 -0.21393504732834456 2.4
0.21847292029234042 -0.23518202120684456 2.6
0.2245983292724995 -0.24177590965189627 2.8000000000000003
0.19192948137831772 -0.20660850461162042 3.0000000000000004
0.18512347140036323 -0.19928196189489633 3.2000000000000006
0.18376226940477233 -0.1978166533515515 3.400000000000001
0.18784587539154504 -0.20221257898158598 3.600000000000001
0.2116669103143859 -0.22785547849012042 3.800000000000001
0.21086951182196387 -0.23265865336145708 0
0.22833004464798637 -0.25192338262068603 0.2
0.19878145063471753 -0.21932153310506783 0.4
0.19945300958956452 -0.22006248423042277 0.6000000000000001
0.21019795286711684 -0.23191770223610214 0.8
0.19340897899594137 -0.21339392410222816 1.0
0.2122126297316579 -0.234140555612167 1.2
0.20751171704772878 -0.2289538977346823 1.4
0.178634681989307 -0.19709299934441907 1.5999999999999999
0.18535027153777717 -0.20450251059796867 1.7999999999999998
0.179977799899001 -0.198574901595129 1.9999999999999998
0.1833355946732361 -0.2022796572219038 2.1999999999999997
0.20348236331864664 -0.22450819098255254 2.4
0.22027133718982214 -0.24303196911642652 2.6
0.22362913196405723 -0.24673672474320132 2.8000000000000003
0.19273742004109434 -0.2126529729768732 3.0000000000000004
0.18535027153777717 -0.20450251059796867 3.2000000000000006
0.18467871258293014 -0.2037615594726137 3.400000000000001
0.18803650735716523 -0.2074663150993885 3.600000000000001
0.21825666032528107 -0.24080911574036165 3.800000000000001
0.20336164372018273 -0.22998487311870203 0
0.239132095710052 -0.2704382384229688 0.2
0.1947502386115105 -0.22024609998989705 0.4
0.1973999017218712 -0.2232426455679909 0.6000000000000001
0.2086609699409041 -0.2359779642748897 0.8
0.20203681216500238 -0.2284866003296551 1.0
0.20998580149608445 -0.2374762370639366 1.2
0.21329788038403533 -0.24122191903655393 1.4
0.18083950728211692 -0.20451423570490443 1.5999999999999999
0.1874636650580186 -0.212005599650139 1.7999999999999998
0.1861388335028383 -0.2105073268610921 1.9999999999999998
0.18547641772524812 -0.20975819046656866 2.1999999999999997
0.1947502386115105 -0.22024609998989705 2.4
0.2066737226081336 -0.23373055509131932 2.6
0.2291958590461994 -0.2592011925051169 2.8000000000000003
0.19408782283392031 -0.21949696359537357 3.0000000000000004
0.18481400194765796 -0.20900905407204518 3.2000000000000006
0.1834891703924776 -0.20751078128299827 3.400000000000001
0.1993871490546417 -0.22549005475156125 3.600000000000001
0.21064821727367464 -0.2382253734584601 3.800000000000001
0.20052406278680956 -0.23246311587749066 0
0.25277789022311176 -0.2930398235980094 0.2
0.19529868004317935 -0.22640544510543878 0.4
0.199217717100902 -0.2309486981844777 0.6000000000000001
0.20770896405930112 -0.240792413189062 0.8
0.19399233435727178 -0.2248910274124258 1.0
0.21097482827407 -0.24457845742159443 1.2
0.20705579121634735 -0.2400352043425555 1.4
0.1848479145559189 -0.21429010356133502 1.5999999999999999
0.18876695161364157 -0.21883335664037393 1.7999999999999998
0.18615426024182646 -0.215804521254348 1.9999999999999998
0.18550108739887267 -0.2150473124078415 2.1999999999999997
0.19595185288613312 -0.22716265395194526 2.4
0.216853383860654 -0.25139333704015276 2.6
0.23383587777745218 -0.2710807670493213 2.8000000000000003
0.19268598867136424 -0.22337660971941284 3.0000000000000004
0.18615426024182646 -0.215804521254348 3.2000000000000006
0.18680743308478023 -0.21656173010085447 3.400000000000001
0.1907264701425029 -0.22110498317989338 3.600000000000001
0.22077242091837668 -0.2559365901191917 3.800000000000001
0.2060260937247333 -0.24485352499918683 0
0.24851897555545951 -0.29535456453026915 0.2
0.20795758835340267 -0.24714902679605422 0.4
0.2047384306389537 -0.24332319046794193 0.6000000000000001
0.21310824069652098 -0.2532703649210339 0.8
0.19894394675294558 -0.23643668507733978 1.0
0.21503973532519038 -0.25556586671790127 1.2
0.2259848715543168 -0.26857371023348303 1.4
0.18606731589514974 -0.22113333976489058 1.5999999999999999
0.1950809574956068 -0.23184568148360502 1.7999999999999998
0.19121796823826806 -0.22725467788987028 1.9999999999999998
0.1957247890384966 -0.2326108487492275 2.1999999999999997
0.19765628366716598 -0.23490635054609485 2.4
0.21697122995385976 -0.25786136851476865 2.6
0.22212188229697805 -0.26398270663974827 2.8000000000000003
0.19443712595271703 -0.23108051421798256 3.0000000000000004
0.18671114743803952 -0.22189850703051306 3.2000000000000006
0.1963686205813864 -0.23337601601484995 3.400000000000001
0.20280693601028432 -0.24102768867107455 3.600000000000001
0.20924525143918224 -0.24867936132729915 3.800000000000001
0.20808099720567588 -0.2535474287029776 0
0.25185413381296745 -0.30688514998500643 0.2
0.2004682777957121 -0.24427130326262475 0.4
0.20617781735318494 -0.2512283973428894 0.6000000000000001
0.22203764945727605 -0.2705536586769578 0.8
0.2017370643640394 -0.24581732416935023 1.0
0.2137905367631487 -0.2605045227832422 1.2
0.21569371661563963 -0.2628235541433305 1.4
0.18904919868076647 -0.23035711510209547 1.5999999999999999
0.1991994912273848 -0.24272528235589927 1.7999999999999998
0.19285555838574836 -0.23499517782227192 1.9999999999999998
0.20237145764820305 -0.24659033462271296 2.1999999999999997
0.2004682777957121 -0.24427130326262475 2.4
0.21759689646813057 -0.2651425855034187 2.6
0.22901597558307618 -0.2790567736639479 2.8000000000000003
0.20237145764820305 -0.24659033462271296 3.0000000000000004
0.19666191809073025 -0.23963324054244833 3.2000000000000006
0.20110267107987576 -0.24504431371598748 3.400000000000001
0.20808099720567588 -0.2535474287029776 3.600000000000001
0.21315614347898504 -0.2597315123298795 3.800000000000001
0.21432680443283858 -0.2677928694002284 0
0.26681500143679904 -0.3333747966002843 0.2
0.20307933364627562 -0.2537395992859307 0.4
0.21870082084983525 -0.273258030000233 0.6000000000000001
0.22182511829054719 -0.2771617161430935 0.8
0.20307933364627562 -0.2537395992859307 1.0
0.21432680443283858 -0.2677928694002284 1.2
0.2212002588024048 -0.2763809789145214 1.4
0.19183186285971263 -0.23968632917163296 1.5999999999999999
0.20182961466999083 -0.2521781248287865 1.7999999999999998
0.19558101978856696 -0.24437075254306553 1.9999999999999998
0.20682849057512992 -0.25842402265736325 2.1999999999999997
0.20995278801584186 -0.2623277088002237 2.4
0.22682399419568627 -0.28340761397167025 2.6
0.2349471675415373 -0.2935571979431075 2.8000000000000003
0.2130770854565538 -0.2662313949430842 3.0000000000000004
0.1987053172292789 -0.24827443868592602 3.2000000000000006
0.1980804577411365 -0.24749370145735392 3.400000000000001
0.2124522259684114 -0.2654506577145121 3.600000000000001
0.22307483726683194 -0.2787231906002377 3.800000000000001
0.229481383286574 -0.294053217504724 0
0.27500852098954043 -0.35239085314909285 0.2
0.21779198306554207 -0.27907463537981847 0.4
0.22578999374309025 -0.28932313893896433 0.6000000000000001
0.24301647827934783 -0.31139683891250935 0.8
0.20979397238799394 -0.2688261318206726 1.0
0.22148337260902584 -0.2838047139455781 1.2
0.2270204569242515 -0.2908998317942176 1.4
0.19933503534812327 -0.2554242425510203 1.5999999999999999
0.2110244355691552 -0.27040282467592586 1.7999999999999998
0.2085635092068327 -0.2672494389654194 1.9999999999999998
0.21410059352205832 -0.27434455681405884 2.1999999999999997
0.21225489875031642 -0.271979517531179 2.4
0.2337880044206384 -0.29957164249811025 2.6
0.24424694146050907 -0.31297353176776255 2.8000000000000003
0.21902244624670333 -0.28065132823507166 3.0000000000000004
0.20794827761625206 -0.2664610925377928 3.2000000000000006
0.21348536193147769 -0.27355621038643224 3.400000000000001
0.21902244624670333 -0.28065132823507166 3.600000000000001
0.229481383286574 -0.294053217504724 3.800000000000001
0.24704850489296484 -0.32470145708042436 0
0.2755075238389682 -0.3621057915970419 0.2
0.2264611294852178 -0.29764300232372237 0.4
0.23009419573364376 -0.30241802375137566 0.6000000000000001
0.2537091263484124 -0.3334556630311221 0.8
0.22706664052662212 -0.29843883922833125 1.0
0.24402094968594326 -0.32072227255738 1.2
0.23978237239611297 -0.31515141422511783 1.4
0.21313988657432262 -0.2801345904223269 1.5999999999999999
0.22101153011257885 -0.29048047018224243 1.7999999999999998
0.21798397490555724 -0.28650128565919797 1.9999999999999998
0.2264611294852178 -0.29764300232372237 2.1999999999999997
0.22706664052662212 -0.29843883922833125 2.4
0.262186280928073 -0.34459737969564647 2.6
0.2597642367624557 -0.34141403207721094 2.8000000000000003
0.2264611294852178 -0.29764300232372237 3.0000000000000004
0.21798397490555724 -0.28650128565919797 3.2000000000000006
0.21798397490555724 -0.28650128565919797 3.400000000000001
0.22827766260943078 -0.300030513037549 3.600000000000001
0.23372726198206972 -0.30719304517902896 3.800000000000001
0.25376790371377655 -0.3421664084107548 0
0.28117007172042846 -0.37911395485886445 0.2
0.23768402249248088 -0.3204798050607774 0.4
0.24066251901494304 -0.3244958427181806 0.6000000000000001
0.2650861904991328 -0.35742735150888705 0.8
0.2418539176239279 -0.32610225778114194 1.0
0.2561507009317463 -0.34537923853667735 1.2
0.2531722044092841 -0.34136320087927413 1.4
0.22338723918466247 -0.3012028243052419 1.5999999999999999
0.2311313301430641 -0.3116445222144903 1.7999999999999998
0.2293442322295868 -0.30923489962004835 1.9999999999999998
0.23589692457900358 -0.31807018246633545 2.1999999999999997
0.236492623883496 -0.3188733899978161 2.4
0.2561507009317463 -0.34537923853667735 2.6
0.26806468702159497 -0.36144338916629026 2.8000000000000003
0.23827972179697332 -0.32128301259225805 3.0000000000000004
0.22457863779364734 -0.3028092393682032 3.2000000000000006
0.23053563083857168 -0.31084131468300963 3.400000000000001
0.23172702944755655 -0.31244772974597096 3.600000000000001
0.2513851064958068 -0.3389535782848322 3.800000000000001
0.2595084508532025 -0.35903253882589936 0
0.2876267480111116 -0.39793448434202394 0.2
0.2460351001317044 -0.3403920232660897 0.4
0.25833685513828963 -0.35741162442939417 0.6000000000000001
0.27122440800233133 -0.37524168279095127 0.8
0.25247887656372525 -0.34930705244686827 1.0
0.2577510572808332 -0.3566011672311416 1.2
0.26770962085759265 -0.3703789396014357 1.4
0.2337333451251192 -0.3233724221027852 1.5999999999999999
0.2442777065593351 -0.33796065167133194 1.7999999999999998
0.23900552584222715 -0.33066653688705855 1.9999999999999998
0.24662089798916084 -0.3412024804643423 2.1999999999999997
0.24837829156153016 -0.3436338520591001 2.4
0.2706386101448749 -0.3744312255926987 2.6
0.27122440800233133 -0.37524168279095127 2.8000000000000003
0.2489640894189866 -0.3444443092573527 3.0000000000000004
0.2413487172720529 -0.33390836568006893 3.2000000000000006
0.23959132369968358 -0.33147699408531117 3.400000000000001
0.24662089798916084 -0.3412024804643423 3.600000000000001
0.264194833712854 -0.3655161964119201 3.800000000000001
0.26429595986079096 -0.3752714292365769 0
0.2879040957089226 -0.40879240657579186 0.2
0.25277979603243406 -0.35891973297354524 0.4
0.2648717680522088 -0.3760890140497285 0.6000000000000001
0.2775395482634014 -0.39407587993906334 0.8
0.2619927270951196 -0.3720010899839706 1.0
0.2648717680522088 -0.3760890140497285 1.2
0.2683266172007159 -0.38099452292863806 1.4
0.24241524858691282 -0.3442032063368167 1.5999999999999999
0.25277979603243406 -0.35891973297354524 1.7999999999999998
0.25277979603243406 -0.35891973297354524 1.9999999999999998
0.25508302879810546 -0.36219007222615157 2.1999999999999997
0.25623464518094113 -0.36382524185245474 2.4
0.27350889092347647 -0.38835278624700226 2.6
0.2775395482634014 -0.39407587993906334 2.8000000000000003
0.25508302879810546 -0.36219007222615157 3.0000000000000004
0.24529428954400206 -0.34829113040257464 3.2000000000000006
0.24990075507534482 -0.3548318089077873 3.400000000000001
0.25450722060668757 -0.361372487413 3.600000000000001
0.2671750008178802 -0.37935935330233483 3.800000000000001
0.26306529201438034 -0.38343402579503666 0
0.28569456444572483 -0.4164175979064377 0.2
0.25627651028497694 -0.37353895416161637 0.4
0.2715512691761345 -0.395802865336812 0.6000000000000001
0.2755113918516198 -0.4015749904563072 0.8
0.26476248744673114 -0.38590779370339173 1.0
0.27098553736535086 -0.39497827603402696 1.2
0.26702541468986557 -0.3892061509145318 1.4
0.2460933376908719 -0.3586963467114859 1.5999999999999999
0.2585394375281114 -0.37683731137275644 1.7999999999999998
0.25910516933889505 -0.3776619006755415 1.9999999999999998
0.2613680965820295 -0.3809602578866816 2.1999999999999997
0.26080236477124585 -0.3801356685838966 2.4
0.2755113918516198 -0.4015749904563072 2.6
0.276642855473187 -0.40322416906187725 2.8000000000000003
0.26363102382516396 -0.3842586150978217 3.0000000000000004
0.25231638760949165 -0.3677668290421212 3.2000000000000006
0.25684224209576056 -0.37436354346440137 3.400000000000001
0.2596709011496786 -0.3784864899783265 3.600000000000001
0.2675911465006492 -0.3900307402173168 3.800000000000001
0.26778485231544824 -0.4007683531298268 0
0.2861186700050951 -0.4282068503358108 0.2
0.2616735797522326 -0.3916221873944988 0.4
0.27111827371356584 -0.40575717080364204 0.6000000000000001
0.2794518272088599 -0.4182292149881803 0.8
0.26945156301450707 -0.40326276196673444 1.0
0.27222941417960506 -0.4074201100282472 1.2
0.27056270348054623 -0.4049257011913395 1.4
0.2533400262569386 -0.37915014320996065 1.5999999999999999
0.26445143091733064 -0.3957795354560115 1.7999999999999998
0.26445143091733064 -0.3957795354560115 1.9999999999999998
0.2655625713833698 -0.3974424746806166 2.1999999999999997
0.2655625713833698 -0.3974424746806166 2.4
0.27556283557772265 -0.41240892770206244 2.6
0.2777851165098011 -0.4157348061512726 2.8000000000000003
0.26778485231544824 -0.4007683531298268 3.0000000000000004
0.258340158354115 -0.3866333697206836 3.2000000000000006
0.2488954643927818 -0.37249838631154025 3.400000000000001
0.2633402904512914 -0.39411659623140644 3.600000000000001
0.26834042254846785 -0.40159982274212935 3.800000000000001
0.26884521929206906 -0.413244779838535 0
0.2890222438636848 -0.44425909394406404 0.2
0.2644826193846927 -0.4065389821940963 0.4
0.2704811942573352 -0.41575945395519953 0.6000000000000001
0.27920639407208797 -0.42917104924407695 0.8
0.26829989430364704 -0.4124065551329802 1.0
0.2715718442341793 -0.4174359033663092 1.2
0.2715718442341793 -0.4174359033663092 1.4
0.2612106694541604 -0.4015096339607673 1.5999999999999999
0.26829989430364704 -0.4124065551329802 1.7999999999999998
0.26829989430364704 -0.4124065551329802 1.9999999999999998
0.26829989430364704 -0.4124065551329802 2.1999999999999997
0.2639372943962706 -0.40570075748854145 2.4
0.2748437941647116 -0.4224652515996382 2.6
0.27811574409524387 -0.4274945998329673 2.8000000000000003
0.26829989430364704 -0.4124065551329802 3.0000000000000004
0.2623013194310045 -0.40318608337187695 3.2000000000000006
0.2650279443731147 -0.4073772068996511 3.400000000000001
0.26775456931522496 -0.4115683304274253 3.600000000000001
0.26993586926891316 -0.4149212292496447 3.800000000000001
0.26642881470377444 -0.4207370754943541 0
0.28782871949925837 -0.4545312181043424 0.2
0.2648238218441131 -0.418202514798605 0.4
0.2707087956628712 -0.42749590401635174 0.6000000000000001
0.2765937694816293 -0.43678929323409854 0.8
0.269638800423097 -0.42580619688585236 1.0
0.2712437932827583 -0.42834075758160145 1.2
0.2728487861424196 -0.4308753182773506 1.4
0.26054384088501636 -0.4114436862766073 1.5999999999999999
0.26910380280320995 -0.42496134332060265 1.7999999999999998
0.26910380280320995 -0.42496134332060265 1.9999999999999998
0.26803380756343576 -0.4232716361901032 2.1999999999999997
0.2658938170838873 -0.41989222192910436 2.4
0.27391878138219383 -0.43256502540785 2.6
0.274988776621968 -0.4342547325383494 2.8000000000000003
0.2685688051833228 -0.42411648975535293 3.0000000000000004
0.26428882422422606 -0.41735766123335527 3.2000000000000006
0.26535881946400025 -0.41904736836385464 3.400000000000001
0.26749880994354863 -0.4224267826248535 3.600000000000001
0.2685688051833228 -0.42411648975535293 3.800000000000001
0.27173745562744717 -0.4410019900285272 0
0.28275383896369505 -0.4588804490837378 0.2
0.26858991753137634 -0.4358938588698956 0.4
0.2706882762620902 -0.4392992796423167 0.6000000000000001
0.2754095834061964 -0.44696147638026407 0.8
0.26858991753137634 -0.4358938588698956 1.0
0.2712128659447687 -0.44015063483542194 1.2
0.27016368657941175 -0.43844792444921143 1.4
0.2617702516565562 -0.4248262413595272 1.5999999999999999
0.40183569693170756 -0.6521380779186329 1.7999999999999998
0.27173745562744717 -0.4410019900285272 1.9999999999999998
0.26911450721405483 -0.4367452140630009 2.1999999999999997
0.26858991753137634 -0.4358938588698956 2.4
0.2727866349928041 -0.44270470041473775 2.6
0.2733112246754826 -0.443556055607843 2.8000000000000003
0.26701614848334093 -0.4333397932905798 3.0000000000000004
0.2654423794353055 -0.430785727711264 3.2000000000000006
0.26701614848334093 -0.4333397932905798 3.400000000000001
0.2675407381660194 -0.43419114848368506 3.600000000000001
0.265966969117984 -0.4316370829043693 3.800000000000001
0.2688757352130551 -0.44859206303014226 0
0.2812142010736924 -0.4691775496701488 0.2
0.26784752972466863 -0.4468766058101417 0.4
0.2729885571666008 -0.45545389191014446 0.6000000000000001
0.2729885571666008 -0.45545389191014446 0.8
0.27041804344563475 -0.4511652488601431 1.0
0.2714462489340212 -0.45288070608014364 1.2
0.2699039407014415 -0.4503075202501428 1.4
0.26424881051531607 -0.44087250554013985 1.5999999999999999
0.2693898379572483 -0.44944979164014254 1.7999999999999998
0.2699039407014415 -0.4503075202501428 1.9999999999999998
0.2673334269804754 -0.44601887720014144 2.1999999999999997
0.26836163246886185 -0.447734334420142 2.4
0.2688757352130551 -0.44859206303014226 2.6
0.2714462489340212 -0.45288070608014364 2.8000000000000003
0.26784752972466863 -0.4468766058101417 3.0000000000000004
0.26630522149208896 -0.4443034199801409 3.2000000000000006
0.2668193242362822 -0.44516114859014116 3.400000000000001
0.26836163246886185 -0.447734334420142 3.600000000000001
0.26836163246886185 -0.447734334420142 3.800000000000001
0.26687534337463065 -0.4579056137444408 0
0.280470879735225 -0.48123288085972366 0.2
0.2638541130722763 -0.4527217766077113 0.4
0.26989657367698494 -0.4630894508811703 0.6000000000000001
0.26989657367698494 -0.4630894508811703 0.8
0.2678824201420821 -0.459633559456684 1.0
0.26737888175835633 -0.4587695866005624 1.2
0.2663718049909049 -0.4570416408883192 1.4
0.2613364211536477 -0.44840191232710336 1.5999999999999999
0.26838595852580777 -0.46049753231280555 1.7999999999999998
0.26687534337463065 -0.4579056137444408 1.9999999999999998
0.26737888175835633 -0.4587695866005624 2.1999999999999997
0.26586826660717916 -0.4561776680321976 2.4
0.26838595852580777 -0.46049753231280555 2.6
0.2688894969095335 -0.46136150516892716 2.8000000000000003
0.26536472822345347 -0.45531369517607606 3.0000000000000004
0.2623434979210992 -0.4501298580393465 3.2000000000000006
0.26435765145600204 -0.45358574946383284 3.400000000000001
0.2663718049909049 -0.4570416408883192 3.600000000000001
0.2663718049909049 -0.4570416408883192 3.800000000000001
0.2641934310351644 -0.4663666272342693 0
0.2735584966875303 -0.48289828006533486 0.2
0.2617289400740155 -0.46201619227872576 0.4
0.2671508201885431 -0.4715871491809216 0.6000000000000001
0.2641934310351644 -0.4663666272342693 0.8
0.26074314368955587 -0.4602760182965083 1.0
0.26222183826624523 -0.46288627926983444 1.2
0.26222183826624523 -0.46288627926983444 1.4
0.2577857545361772 -0.45505549634985604 1.5999999999999999
0.2641934310351644 -0.4663666272342693 1.7999999999999998
0.2641934310351644 -0.4663666272342693 1.9999999999999998
0.2632076346507048 -0.4646264532520519 2.1999999999999997
0.2617289400740155 -0.46201619227872576 2.4
0.2637005328429346 -0.4654965402431606 2.6
0.2656721256118537 -0.4689768882075954 2.8000000000000003
0.26222183826624523 -0.46288627926983444 3.0000000000000004
0.25926444911286656 -0.4576657573231822 3.2000000000000006
0.2632076346507048 -0.4646264532520519 3.400000000000001
0.2637005328429346 -0.4654965402431606 3.600000000000001
0.2602502454973261 -0.45940593130539964 3.800000000000001
0.2579683180623306 -0.4686975003945426 0
0.26905854482015046 -0.48884711256103697 0.2
0.2584505018344097 -0.46957357048873805 0.4
0.2613436044668845 -0.4748299910539105 0.6000000000000001
0.2613436044668845 -0.4748299910539105 0.8
0.25748613429025147 -0.46782143030034723 1.0
0.2570039505181724 -0.4669453602061518 1.2
0.2579683180623306 -0.4686975003945426 1.4
0.2536286641136185 -0.46081286954678397 1.5999999999999999
0.2579683180623306 -0.4686975003945426 1.7999999999999998
0.2613436044668845 -0.4748299910539105 1.9999999999999998
0.2598970531506471 -0.47220178077132424 2.1999999999999997
0.2579683180623306 -0.4686975003945426 2.4
0.26037923692272624 -0.4730778508655197 2.6
0.2613436044668845 -0.4748299910539105 2.8000000000000003
0.2584505018344097 -0.46957357048873805 3.0000000000000004
0.25603958297401413 -0.465193220017761 3.2000000000000006
0.25748613429025147 -0.46782143030034723 3.400000000000001
0.2584505018344097 -0.46957357048873805 3.600000000000001
0.25603958297401413 -0.465193220017761 3.800000000000001
0.2531400476755609 -0.4735917189550666 0
0.26445356935938485 -0.49475782929942713 0.2
0.2536114444123869 -0.4744736402194149 0.4
0.2587968085174729 -0.48417477412724685 0.6000000000000001
0.2578540150438209 -0.48241093159855014 0.8
0.2536114444123869 -0.4744736402194149 1.0
0.2554970313596909 -0.47800132527680833 1.2
0.25408284114921287 -0.4753555614837633 1.4
0.2503116672546049 -0.46830019136897644 1.5999999999999999
0.2554970313596909 -0.47800132527680833 1.7999999999999998
0.2536114444123869 -0.4744736402194149 1.9999999999999998
0.2559684280965169 -0.4788832465411567 2.1999999999999997
0.2521972542019089 -0.47182787642636986 2.4
0.25455423788603887 -0.4762374827481116 2.6
0.25408284114921287 -0.4753555614837633 2.8000000000000003
0.2531400476755609 -0.4735917189550666 3.0000000000000004
0.2503116672546049 -0.46830019136897644 3.2000000000000006
0.2517258574650829 -0.4709459551620215 3.400000000000001
0.2526686509387349 -0.4727097976907182 3.600000000000001
0.2517258574650829 -0.4709459551620215 3.800000000000001
0.2500725200503243 -0.48198831387874974 0
0.25836221684757266 -0.4979658270460011 0.2
0.24869090391744958 -0.4793253950175412 0.4
0.2509935974722408 -0.4837635931195554 0.6000000000000001
0.2523752136051155 -0.486426511980764 0.8
0.24869090391744958 -0.4793253950175412 1.0
0.24869090391744958 -0.4793253950175412 1.2
0.24915144262840783 -0.480213034637944 1.4
0.24592767165170015 -0.47399955729512405 1.5999999999999999
0.25191467489415725 -0.48553887236036114 1.7999999999999998
0.2500725200503243 -0.48198831387874974 1.9999999999999998
0.2509935974722408 -0.4837635931195554 2.1999999999999997
0.24869090391744958 -0.4793253950175412 2.4
0.24869090391744958 -0.4793253950175412 2.6
0.251454136183199 -0.4846512327399583 2.8000000000000003
0.24915144262840783 -0.480213034637944 3.0000000000000004
0.24684874907361662 -0.4757748365359297 3.2000000000000006
0.2477698264955331 -0.47755011577673545 3.400000000000001
0.24915144262840783 -0.480213034637944 3.600000000000001
0.2477698264955331 -0.47755011577673545 3.800000000000001
0.2445885633321062 -0.48591401985036026 0
0.25358078992519834 -0.5037785058742704 0.2
0.24413895200245161 -0.4850207955491647 0.4
0.24728623131003385 -0.4912733656575333 0.6000000000000001
0.24773584263968848 -0.49216658995872886 0.8
0.24413895200245161 -0.4850207955491647 1.0
0.2450381746617608 -0.48680724415155574 1.2
0.24548778599141544 -0.4877004684527513 1.4
0.24144128402452397 -0.47966144974199165 1.5999999999999999
0.24548778599141544 -0.4877004684527513 1.7999999999999998
0.24548778599141544 -0.4877004684527513 1.9999999999999998
0.24593739732107003 -0.4885936927539468 2.1999999999999997
0.2450381746617608 -0.48680724415155574 2.4
0.24593739732107003 -0.4885936927539468 2.6
0.24773584263968848 -0.49216658995872886 2.8000000000000003
0.24413895200245161 -0.4850207955491647 3.0000000000000004
0.2427901180134878 -0.4823411226455782 3.2000000000000006
0.243689340672797 -0.48412757124796924 3.400000000000001
0.24593739732107003 -0.4885936927539468 3.600000000000001
0.243689340672797 -0.48412757124796924 3.800000000000001
0.23948446624203612 -0.4906762582688988 0
0.2478181747742681 -0.5077510731170839 0.2
0.23860723376495907 -0.48887890933751094 0.4
0.24255477991180582 -0.4969669795287565 0.6000000000000001
0.24343201238888287 -0.4987643284601444 0.8
0.23992308248057465 -0.4915749327345928 1.0
0.23948446624203612 -0.4906762582688988 1.2
0.24123893119619022 -0.49427095613167465 1.4
0.23729138504934347 -0.486182885940429 1.5999999999999999
0.24167754743472877 -0.49516963059736857 1.7999999999999998
0.24255477991180582 -0.4969669795287565 1.9999999999999998
0.2421161636732673 -0.49606830506306254 2.1999999999999997
0.23860723376495907 -0.48887890933751094 2.4
